# .PCD v0.7 - Point Cloud Data file format
VERSION 0.7
FIELDS x y z intensity
SIZE 4 4 4 4
TYPE F F F F
COUNT 1 1 1 1
WIDTH 1351
HEIGHT 1
VIEWPOINT 0 0 0 1 0 0 0
POINTS 1351
DATA ascii
-12.270878 4.2758756 0.88029003 0.0
13.553477 8.5471363 1.3595347 0.0
-9.6226997 -9.540946 1.1977634 0.0
-4.4707837 17.545807 0.90436852 0.0
1.9585032 -9.7743683 0.83452153 0.0
-15.382527 1.747417 1.0321752 0.0
13.344573 15.674351 1.009711 0.0
20.502134 -13.688816 0.78887188 0.0
-12.815767 2.3928137 0.70049059 0.0
7.4018006 -15.549878 0.84261739 0.0
-14.590978 15.126726 1.0190786 0.0
10.021403 -3.0232565 1.530745 0.0
-7.2926073 11.599703 1.1370251 0.0
17.632858 13.635798 1.4255532 0.0
-9.148633 5.24828 0.83816785 0.0
16.590675 13.288646 1.8578112 0.0
19.029179 -13.834774 0.84424418 0.0
8.5670471 5.6702871 1.0809404 0.0
-20.078438 -1.9518881 0.95544946 0.0
14.7654 6.6013632 1.0616112 0.0
-8.1841393 -13.060242 0.90855145 0.0
-13.176983 -5.4796662 0.95641565 0.0
0.77852046 -17.399986 0.92608595 0.0
16.320786 -16.952085 1.329632 0.0
-10.711868 15.39925 1.4801353 0.0
-18.116331 11.397676 0.93102324 0.0
-18.97382 16.300085 0.95091969 0.0
4.7871628 -14.56472 0.76447237 0.0
2.6201766 -4.6937132 0.68227172 0.0
-14.585487 3.3823829 0.91517746 0.0
8.0933113 -11.378834 1.1038235 0.0
20.208517 -3.4639769 1.6366637 0.0
-21.285627 5.6041069 0.7067101 0.0
21.303436 12.580916 0.99526191 0.0
-6.6398969 0.78796017 1.1867938 0.0
17.004995 -10.615044 2.1106787 0.0
-5.4964619 -13.256871 0.93889785 0.0
9.4205132 1.7683538 0.98611754 0.0
17.288551 2.08953 1.3149998 0.0
-9.8364964 3.2496278 0.84889901 0.0
8.5295877 5.3148975 1.4019758 0.0
-6.8513694 -10.280598 0.88511306 0.0
-3.199157 7.1838083 1.7485688 0.0
-17.151831 -5.5635433 1.1966642 0.0
6.3487873 -9.3116722 1.2193398 0.0
-11.551003 -3.4455972 1.1102636 0.0
-1.0740718 15.961705 0.95612544 0.0
16.25104 -7.1306629 1.2813518 0.0
-17.538275 -11.255245 0.74253803 0.0
1.6806396 11.40974 0.85667002 0.0
-13.882256 9.9386034 1.8540161 0.0
-13.401295 -11.380947 0.84826678 0.0
-16.681177 -9.3437099 0.91140783 0.0
-20.45929 -15.226402 0.93568736 0.0
-4.9364872 -15.347052 0.86646181 0.0
-0.82756233 17.542192 0.86353642 0.0
-0.79699409 8.515399 0.85138386 0.0
-16.220467 8.3191853 1.154948 0.0
-14.42043 2.8936591 0.94139385 0.0
-15.626644 -5.4752131 1.0137389 0.0
-7.406961 -11.462978 0.94243729 0.0
-12.668831 -13.654663 0.76293266 0.0
11.360228 6.8469687 1.3886995 0.0
-5.2253208 5.9505515 0.81299835 0.0
19.825096 -16.931065 0.85490096 0.0
-19.341377 14.801205 0.91118854 0.0
-4.3574491 6.7749538 1.0877223 0.0
10.275578 -10.309283 1.3272083 0.0
-12.211353 -10.955843 0.95017582 0.0
12.678864 5.8023362 1.3050984 0.0
5.5890679 1.5659034 0.93783355 0.0
-13.132141 3.4874196 1.0732319 0.0
14.322245 8.417963 1.0853555 0.0
-17.675304 -5.0026426 0.97472298 0.0
5.677546 -12.797283 0.88230824 0.0
11.310757 5.8119469 1.3162299 0.0
-7.4718914 10.536535 0.94952703 0.0
18.879398 -12.503983 1.0707189 0.0
-10.941108 -2.2253871 1.1030853 0.0
12.89368 -1.5675822 1.1471641 0.0
-15.601751 -11.693666 0.93975163 0.0
-3.3766174 -15.198299 0.84369731 0.0
-6.5004802 -8.5294361 0.79831797 0.0
-6.5598254 12.831718 0.99128002 0.0
15.410491 15.79508 1.3734558 0.0
-20.477018 4.4766912 0.93792689 0.0
14.601215 -8.0261354 1.1926579 0.0
-19.621731 -0.50704873 0.71491051 0.0
11.968542 -15.554098 0.89302266 0.0
-11.652252 -11.64766 0.88782835 0.0
-3.0425205 -9.2343998 0.81580234 0.0
8.3282938 1.590126 1.0609301 0.0
-4.0128584 -7.4785495 0.91221523 0.0
4.4647717 -7.0204411 0.50726736 0.0
-0.41763425 -16.319429 0.99194872 0.0
20.330105 -14.826128 0.74563396 0.0
-12.792903 5.4606032 1.0984995 0.0
-17.771494 -15.976501 1.0515441 0.0
-6.3177481 7.0978413 0.81433529 0.0
15.461416 -17.906179 1.2032845 0.0
-7.633852 10.529215 1.050552 0.0
-13.651288 -4.7987766 0.86366069 0.0
-14.461799 14.674265 1.0260231 0.0
-9.3644581 16.813791 0.79706037 0.0
14.045573 3.5009441 1.1928008 0.0
-20.598146 -13.549007 0.99672747 0.0
-5.4252934 -3.9887249 1.0258421 0.0
7.4481091 8.9641619 1.2310619 0.0
1.2495726 -1.1858063 1.4413753 0.0
-13.078865 -6.999979 1.447474 0.0
19.142963 7.0552373 1.0914253 0.0
19.839781 1.5266223 2.0367644 0.0
19.098019 -10.800982 1.3235896 0.0
-7.3584843 8.3423796 0.85091585 0.0
10.600794 17.41083 0.82098377 0.0
-0.47388095 3.3913126 0.91781569 0.0
-20.029455 -5.9239516 0.83938444 0.0
3.8500104 9.9686422 0.84545022 0.0
-17.468758 -1.0654533 0.86240828 0.0
-15.405336 0.51123762 0.92771167 0.0
18.905519 -6.0967827 1.2144783 0.0
-7.7321916 13.399864 0.91523719 0.0
-5.9862561 -8.6356115 0.87008983 0.0
9.420372 -9.125412 1.2762806 0.0
-1.6103446 1.3180764 1.0082124 0.0
20.70512 -14.807778 0.73998612 0.0
8.59375 16.331949 1.0316966 0.0
-16.400517 0.046369959 0.8220917 0.0
7.236454 -7.219243 0.89803767 0.0
-15.0295 -5.6923156 1.0159005 0.0
-9.4330578 -16.634508 0.85204089 0.0
-14.810365 13.14051 1.0450263 0.0
-18.694628 -15.050302 0.79328114 0.0
-1.0312774 12.435293 0.99075937 0.0
7.4518728 6.5158739 1.5682425 0.0
1.5847632 9.8512068 0.84188008 0.0
8.01647 -14.275495 0.79029036 0.0
-15.689884 -15.023649 1.025808 0.0
-11.961531 15.693787 0.75620824 0.0
-6.0462122 15.277742 0.82399666 0.0
5.9278531 -3.4444594 0.98433656 0.0
-0.98155046 16.521084 0.77794087 0.0
10.166728 1.7759967 1.0186865 0.0
19.189369 -6.7748432 1.7424326 0.0
12.778105 5.393033 1.008598 0.0
1.6973733 -1.8123727 1.4183331 0.0
20.52762 2.269908 1.1912766 0.0
6.7368841 -16.793982 0.83819699 0.0
5.3031311 0.1254262 1.0448185 0.0
3.1915398 -10.70143 1.1061101 0.0
-19.976313 -1.7767928 0.9450742 0.0
-21.174189 -13.02615 1.0541751 0.0
18.599499 -9.0617418 1.943985 0.0
15.167162 -12.355758 2.1023865 0.0
5.7139058 13.423288 0.99220484 0.0
20.444178 -15.03787 0.74106181 0.0
7.5021238 1.0717418 1.1046363 0.0
16.05891 -13.769687 1.7215416 0.0
-9.7957096 -12.917939 0.82916075 0.0
17.243059 0.77358121 1.591413 0.0
-16.721325 -5.6274424 1.1108239 0.0
-20.89683 -8.7856159 0.99267882 0.0
-2.2541776 7.3755364 1.5624115 0.0
19.101246 4.5340695 1.6548736 0.0
-19.329424 15.737847 0.91481286 0.0
-9.4704552 16.057205 1.0151025 0.0
-3.9718227 3.4448404 1.0482045 0.0
11.244381 -0.34329402 1.1310515 0.0
3.0588908 -13.189131 0.91299796 0.0
5.6355896 3.793875 0.93461704 0.0
-8.0553913 -12.859251 0.90808266 0.0
20.69873 13.597831 0.87451321 0.0
-0.26786393 -12.919497 0.96760029 0.0
4.0984235 9.5215435 0.88179427 0.0
6.2857752 15.696785 1.0184399 0.0
3.7894487 2.5969443 0.96946037 0.0
-5.6924434 -1.447341 1.8760417 0.0
-6.5573187 15.525602 0.80783546 0.0
-12.063417 -10.21911 1.4234579 0.0
-12.003077 -9.1757421 1.5504172 0.0
4.8231983 -6.7348146 0.65930367 0.0
-13.773651 -8.1707659 2.007534 0.0
-16.480415 4.6293359 1.2753654 0.0
19.509127 -14.785376 0.72531372 0.0
7.6705871 16.922215 0.84684539 0.0
-18.115742 -6.3401003 1.0361389 0.0
14.94212 -4.0381279 1.1554053 0.0
-8.722311 17.621048 0.86357033 0.0
-11.847286 -6.9536386 1.0462503 0.0
-20.7425 13.307744 0.95027673 0.0
19.039032 -11.555654 1.1105691 0.0
0.11726113 2.6206045 0.96146333 0.0
-0.8859672 10.481457 0.8526274 0.0
-14.207173 -9.5052805 1.1818113 0.0
-7.64079 -8.0219746 0.84284437 0.0
-8.392705 -17.187284 0.8136363 0.0
18.159012 11.609529 1.8069782 0.0
15.898925 -16.836533 1.4268719 0.0
-11.184587 -8.4518385 1.3857431 0.0
-5.3019719 12.172116 1.179698 0.0
3.4461553 7.4524469 1.0586565 0.0
-15.127214 7.5536718 1.8838384 0.0
4.8864932 17.53833 0.91472912 0.0
-16.019232 16.648594 0.88103402 0.0
-0.93497229 4.2683787 0.82853842 0.0
-5.0164728 2.4784315 1.444494 0.0
-4.9048004 -1.0506129 1.7536089 0.0
2.9312301 2.5510464 0.9864049 0.0
16.515675 -9.2069721 2.1126003 0.0
12.732988 -0.71982199 1.0280405 0.0
19.861828 -16.433855 0.78184742 0.0
0.501508 7.945612 0.89144349 0.0
-12.83058 15.767021 0.9158895 0.0
-12.525985 -11.764618 0.85245955 0.0
8.2584248 5.7600288 1.4101541 0.0
16.988028 -9.7161655 2.274368 0.0
-14.897318 -16.844807 0.80961591 0.0
4.2751417 -17.587219 0.75297952 0.0
3.6131623 -15.405868 0.89244604 0.0
14.421019 12.623093 0.99918032 0.0
3.8877773 17.253349 0.97397262 0.0
-15.492127 -0.37333316 0.85007107 0.0
-5.3033333 -8.3140221 0.9652102 0.0
-5.367558 -13.874657 0.9482823 0.0
8.5966206 14.080187 1.4461067 0.0
8.5505943 5.729414 1.2243947 0.0
1.1096773 -6.7786155 0.59292328 0.0
5.101265 16.8694 0.89397013 0.0
10.318329 12.350056 0.46374559 0.0
-14.420585 -8.4920769 1.6967254 0.0
-16.86356 15.887086 0.9058665 0.0
-0.42338887 10.677498 0.83463776 0.0
-6.4314561 6.5403256 0.84167445 0.0
-12.232327 -7.4780197 1.461288 0.0
-16.321611 -16.696703 0.83265674 0.0
-17.511503 -0.635373 0.89725411 0.0
12.126738 -13.134908 1.2385248 0.0
6.4650736 -14.019773 0.87253988 0.0
-5.2557268 4.5568914 0.97433078 0.0
13.575344 -8.1172991 1.1884749 0.0
-1.8610873 -14.382513 0.83608025 0.0
-8.2615795 -11.144729 0.95889753 0.0
19.720966 -6.887516 1.415154 0.0
12.483794 -2.6560133 1.3024738 0.0
15.299734 -8.5872164 1.1910958 0.0
-15.778898 5.0382795 1.4758161 0.0
-10.536075 15.289034 1.0901818 0.0
-1.0723561 -14.667531 0.95351958 0.0
-11.641654 -14.687624 1.0304344 0.0
19.506615 -4.1985812 1.9057238 0.0
-14.06447 0.62350315 0.97424841 0.0
18.610777 7.9095898 1.4019207 0.0
-11.887752 13.650669 0.86772943 0.0
-4.5449772 -9.2945814 0.93984187 0.0
-7.8535509 16.276888 0.97055453 0.0
-13.714001 0.93505335 0.92697513 0.0
11.985195 -14.835953 0.93146467 0.0
11.950546 11.539701 0.70748091 0.0
9.5101538 -4.3117347 1.6024195 0.0
-16.326664 14.367809 0.99626404 0.0
-15.526501 -1.7639967 1.1506582 0.0
-14.528119 -9.7465258 1.0299799 0.0
14.450511 -7.6934385 1.2333788 0.0
-15.785837 -5.6313963 1.0838122 0.0
-2.2897625 7.8838253 1.5313343 0.0
-14.459986 -8.9536114 1.4518043 0.0
16.098423 10.573645 0.91715384 0.0
0.26158661 12.348458 0.90645218 0.0
-3.427196 -9.7497892 0.80722529 0.0
-20.781588 -11.340617 0.87630481 0.0
-18.685324 -16.958651 0.92293894 0.0
20.893967 1.7062163 0.94098347 0.0
-15.388342 -8.1983852 1.5929321 0.0
-9.0687208 -2.1919756 1.2700645 0.0
3.3021431 -4.4763551 0.65019715 0.0
-0.60968822 2.9014959 1.0003898 0.0
11.730381 16.564098 0.96300244 0.0
-17.136692 -8.9692783 0.9691242 0.0
8.8703156 17.187687 0.80680233 0.0
-1.9014361 -7.8671722 1.0298001 0.0
11.99087 -6.8226004 1.292549 0.0
17.886276 -7.7341781 2.6277945 0.0
12.545187 5.9364643 1.2228272 0.0
10.991087 10.65856 0.38505822 0.0
-8.0909185 16.298798 0.95619529 0.0
0.33175287 15.499176 1.0568588 0.0
3.0544424 14.794937 0.91701245 0.0
-9.9350796 -17.658817 0.86651599 0.0
-0.37657845 -6.9851995 0.94486248 0.0
-14.535378 -1.7884016 0.78565896 0.0
-20.263079 9.3762035 0.86824429 0.0
-10.659081 -8.7906923 1.3084098 0.0
5.2064228 10.375925 0.90098453 0.0
-20.621761 3.4022303 0.98745924 0.0
2.4630218 -1.6921368 1.3248937 0.0
-16.839174 -10.35462 0.79876846 0.0
6.8716173 -8.0330257 0.87116855 0.0
13.034466 -12.665826 1.2521466 0.0
5.1603317 10.205856 0.88287354 0.0
-15.617657 6.1819601 1.8601962 0.0
-8.6442022 13.348713 0.81010544 0.0
11.479882 -18.047583 0.90244389 0.0
-8.0223207 -5.7434864 0.89910877 0.0
-13.979663 -9.9943571 0.97509581 0.0
8.9887943 3.2031841 0.93149763 0.0
-14.720813 -10.752299 0.92251289 0.0
2.3857925 -10.78684 1.2780501 0.0
21.112732 2.0294318 0.89075375 0.0
16.349854 11.596355 1.0449338 0.0
-5.0194473 -2.5129089 1.4728957 0.0
7.6216149 -10.21138 1.3310931 0.0
-9.7591772 -2.9429796 1.3154702 0.0
-3.7978485 -12.355576 0.9533155 0.0
-13.468605 9.2224045 1.8143187 0.0
15.955827 -6.1496768 1.1360462 0.0
-5.6672244 -14.270819 0.90669167 0.0
-2.0730071 16.877466 0.98345649 0.0
20.542427 -3.5661263 1.3291258 0.0
-6.8241549 -8.8916359 0.79124427 0.0
-19.363125 -11.971739 0.92106408 0.0
4.4931345 2.5842924 1.0075654 0.0
5.6985178 -1.1639526 1.5582516 0.0
-18.261581 -9.617897 0.80576396 0.0
14.427678 7.5077887 1.1542038 0.0
-5.9730277 10.292444 1.5912324 0.0
-20.911861 1.39081 0.97115105 0.0
1.7171657 17.639315 0.83199251 0.0
0.50221705 -4.373363 0.75979501 0.0
-17.446007 -11.384209 0.75885856 0.0
-7.4443789 -12.463033 0.9473561 0.0
-0.79055071 -9.6009865 1.0763105 0.0
12.534486 15.508329 1.1412071 0.0
18.849781 -3.6177752 2.1607537 0.0
-3.6438904 11.761906 0.9739545 0.0
-18.385962 11.598703 0.9182446 0.0
-18.445822 -5.9283533 1.0260862 0.0
7.4375143 15.588143 1.0741212 0.0
-8.3406343 1.0926889 0.81332552 0.0
-5.7428856 11.383814 1.7135935 0.0
-13.769301 -7.5426579 1.7782898 0.0
6.8401265 -9.8455772 1.7422078 0.0
-11.614676 -17.320248 0.95625353 0.0
-16.105679 15.421505 1.0487294 0.0
4.8194923 -12.723374 0.81214648 0.0
7.7826633 7.6165457 1.8214631 0.0
-4.2396297 -15.441731 0.84374267 0.0
-20.235828 8.3750439 0.93789524 0.0
17.322563 -9.5237675 2.323725 0.0
-0.37925524 4.9637222 0.82612884 0.0
8.7027283 5.433547 1.5634893 0.0
16.662676 8.5758429 1.0255241 0.0
1.6284835 -5.0083866 0.66093338 0.0
-1.2053409 5.4283781 0.77459216 0.0
20.321775 -15.244298 0.74506056 0.0
-16.172726 -9.0438366 0.98781204 0.0
-20.166542 11.847633 0.88349152 0.0
-9.5456238 -7.4070973 0.82522392 0.0
-9.5197954 6.3759112 0.96514124 0.0
-10.705173 -9.9483776 1.7777042 0.0
-7.1094041 8.8491421 0.77304667 0.0
3.8713558 -14.556364 0.85283625 0.0
-16.641937 7.4765878 1.3037599 0.0
-19.466953 12.48711 0.94269216 0.0
1.7573707 10.07031 0.88579875 0.0
-10.206367 17.448345 0.83580959 0.0
15.096951 8.6605005 1.0719711 0.0
-17.696701 11.427142 0.94254255 0.0
-21.042171 0.94801974 0.85358024 0.0
5.9109612 -10.64189 1.615942 0.0
6.4654117 -12.374117 0.93864751 0.0
-18.322048 4.9323349 1.006392 0.0
-10.109896 15.743776 0.84501493 0.0
20.045443 1.8120357 1.8398823 0.0
1.7747979 5.4367085 0.94152653 0.0
12.094561 -9.7494392 1.1807438 0.0
5.4637699 -2.6084478 1.4253051 0.0
-6.6487851 7.7375355 0.80925751 0.0
21.426821 17.024658 0.88381851 0.0
19.041203 -8.6646767 1.784173 0.0
-4.5673246 11.823361 1.0986642 0.0
-8.9827919 -0.6647231 0.92010462 0.0
-11.754449 -17.268547 0.97031754 0.0
-10.639461 -2.0788441 1.1247989 0.0
-15.489658 -0.088161729 0.87565404 0.0
13.877231 3.5777564 1.1880077 0.0
-8.4477072 -4.9866056 1.0448644 0.0
20.767666 -14.547123 0.75733113 0.0
3.4856992 -6.1381865 0.59746987 0.0
9.7966633 1.4959774 1.0641639 0.0
-11.31503 -5.6863914 0.92927891 0.0
-4.7384553 11.131847 1.3565408 0.0
-2.8575988 9.490983 1.3746352 0.0
-0.29674372 17.170973 0.84958655 0.0
0.024431884 -0.66111761 0.89219844 0.0
-13.581079 3.8810182 0.93588769 0.0
14.741858 14.029072 0.94751936 0.0
-13.403472 -11.443036 0.84528506 0.0
-17.529497 9.0485086 1.0625266 0.0
-19.113922 -5.7197914 1.0871631 0.0
5.3596234 17.803658 0.86070591 0.0
-0.87018257 -5.8563881 1.2792335 0.0
-1.7123002 0.86375231 0.94237173 0.0
10.059427 -9.3008728 1.3187517 0.0
-21.606367 -2.9364285 1.0009075 0.0
-1.1566181 -16.033344 0.97466278 0.0
6.8209367 1.9198849 1.0057855 0.0
16.075939 -1.2110217 1.1757962 0.0
-15.83446 -1.1954881 0.83703196 0.0
-16.420706 -15.62545 1.0055485 0.0
-5.726429 -10.882988 0.98659545 0.0
5.3080654 3.8816643 0.93522561 0.0
-4.4682217 -11.359215 0.91955215 0.0
6.485528 10.967041 1.2823092 0.0
2.4738162 17.097559 0.88371587 0.0
11.388132 -11.405518 1.2144574 0.0
0.69651139 -7.5553293 0.66833127 0.0
-10.900671 -12.269554 0.87099177 0.0
-18.46591 -5.6588497 0.89361787 0.0
-3.0164561 6.8234911 1.5380454 0.0
-16.895479 -1.3168707 0.65939194 0.0
-15.2078 -4.1105118 0.84082925 0.0
-4.5778737 -15.091606 0.86455262 0.0
-19.279913 -12.154957 1.0016516 0.0
19.501184 -6.9327259 1.6731133 0.0
16.998119 -17.326061 1.1376903 0.0
-12.759562 3.8154655 1.3076833 0.0
11.926115 8.6073885 0.9781087 0.0
11.694396 15.514424 1.2592952 0.0
17.206795 -11.024609 2.0082045 0.0
-5.0946193 2.567173 1.4334193 0.0
-12.3523 1.2614551 0.82562459 0.0
-17.76992 1.9705408 0.86649466 0.0
19.212755 7.1812534 1.2636499 0.0
-20.915401 1.2163013 0.98587549 0.0
-1.5516226 0.21755421 0.87433541 0.0
10.180798 -7.7611885 1.2482967 0.0
12.426677 -17.005531 0.95811754 0.0
2.084765 6.6542358 1.0210049 0.0
-13.149975 1.9268355 0.74270719 0.0
17.573681 -7.4794879 2.3756988 0.0
12.680737 6.0898166 1.4893893 0.0
5.8261685 13.214931 1.0429335 0.0
9.3217506 -9.1213083 1.2728411 0.0
11.806568 14.929493 1.3523645 0.0
-19.985466 0.57348377 0.98479325 0.0
-1.159304 -9.1395855 1.0968013 0.0
-6.311995 5.603816 0.83779895 0.0
9.0687761 11.052389 0.5436852 0.0
-19.094273 -6.4065609 0.98141772 0.0
16.4772 3.3243413 1.0056207 0.0
16.012545 1.7479838 1.1004179 0.0
9.5456924 6.2480345 2.1931086 0.0
-8.6265335 11.614637 0.83403695 0.0
-16.369371 14.608444 0.90341729 0.0
19.782824 -9.1465902 1.3331423 0.0
-0.72620934 7.1936264 0.91664869 0.0
-18.90107 -3.1109452 0.84440255 0.0
17.416275 -8.8680019 2.5352688 0.0
19.148914 -12.264869 0.93696105 0.0
10.51488 3.1411023 1.0472796 0.0
-1.8540998 -15.912068 0.89235032 0.0
-0.7004801 -3.1828437 1.5319659 0.0
-14.552458 9.0633221 1.7364581 0.0
3.948442 -0.20531479 1.7659564 0.0
11.260946 -2.4807315 1.3214371 0.0
-12.69916 -16.705877 1.0034932 0.0
-15.408906 -12.632493 1.0483121 0.0
2.9809544 3.6057315 0.87629664 0.0
13.913586 8.3348255 1.1892532 0.0
3.4893029 -17.307604 0.75084549 0.0
-6.0764971 2.8995228 1.6065159 0.0
-13.055099 3.7789335 1.1564867 0.0
6.5589232 5.4675937 0.93676019 0.0
-6.282897 8.920001 0.78185958 0.0
19.359821 14.838831 0.77670789 0.0
5.5634155 -16.779118 0.78878695 0.0
3.0579703 10.451936 0.89112771 0.0
-4.6781569 -7.1568851 0.95496446 0.0
14.517837 -17.155687 1.1226096 0.0
-7.0846596 17.588795 0.86090863 0.0
-19.79163 -4.1050448 0.9544276 0.0
-9.9120569 5.0521903 0.86580169 0.0
15.03861 -7.3435845 1.2103633 0.0
-8.9982262 -8.3910189 0.91161698 0.0
-11.943029 8.9545135 1.2590796 0.0
19.651054 -3.2969491 2.0682547 0.0
-18.55616 13.252207 0.91867876 0.0
5.9429159 -11.100344 1.2541233 0.0
15.138489 -11.447941 1.8869227 0.0
-2.6706679 1.7377175 0.95130157 0.0
2.562886 4.1708274 0.77222407 0.0
-13.19388 5.9100161 1.1939167 0.0
-1.1648659 -11.087002 1.0368733 0.0
-10.579227 4.9826369 0.93124986 0.0
5.4690609 6.5829296 0.88534492 0.0
-6.3023376 -15.607347 0.91991222 0.0
10.887778 -4.5215435 1.4420712 0.0
4.3482175 -11.2535 1.4082925 0.0
9.7420063 -13.849046 1.015471 0.0
-14.789584 3.5989773 0.95690584 0.0
5.1655154 -7.5932908 0.63325495 0.0
-14.761045 13.002361 1.0418023 0.0
15.65814 0.92909396 1.0289931 0.0
20.849604 -17.989651 0.82789624 0.0
-11.006437 -7.6105542 1.0579171 0.0
6.3640075 -10.658562 1.4376261 0.0
-17.396238 -4.4484086 0.89063144 0.0
15.705093 -1.7351472 1.0553129 0.0
7.4610729 15.945398 1.0205157 0.0
9.2623634 -15.481031 0.83876789 0.0
16.922186 1.1611346 1.4322728 0.0
18.417408 12.118095 1.6163189 0.0
-8.3926573 -1.9827528 1.2309164 0.0
-7.2274237 -1.2521552 1.2802149 0.0
11.08403 -2.089447 1.3223826 0.0
-8.5865574 17.244654 0.85546935 0.0
15.002089 -1.7160411 0.9990133 0.0
1.0269542 -2.7785029 0.98130751 0.0
-15.43472 14.459439 0.98186672 0.0
3.7844508 12.340582 0.949453 0.0
-4.7088809 11.215246 1.6571151 0.0
17.39193 10.715502 1.2616701 0.0
1.5910642 -0.15681468 1.0620745 0.0
11.093227 -14.424744 0.91599512 0.0
11.790034 12.705231 1.0994985 0.0
18.236902 3.2922602 1.3238155 0.0
8.4438572 -17.171249 0.83255523 0.0
11.74078 14.711719 1.3794349 0.0
-8.8668003 12.680757 0.80627203 0.0
20.679752 -15.087831 0.73756576 0.0
2.1935947 -4.8052182 0.68198788 0.0
-13.430079 5.5759883 1.2062514 0.0
-15.466629 -17.851358 0.84029865 0.0
-19.405312 13.209372 0.98920184 0.0
-4.0999017 -16.267372 0.76839906 0.0
-11.730872 4.1123047 0.89059412 0.0
20.821732 12.915769 0.97376662 0.0
14.786197 -11.757583 1.8132354 0.0
-13.942015 15.102072 1.0074446 0.0
-3.387387 11.569679 0.95338017 0.0
-8.1141701 15.570503 0.96649694 0.0
2.6220086 -0.59520924 1.6865916 0.0
-17.463366 14.949788 0.839203 0.0
11.669819 -1.2852721 1.2105914 0.0
-1.9853494 16.593063 0.75436586 0.0
8.414299 -15.789383 0.82679683 0.0
1.4896547 13.181407 0.89602041 0.0
-7.6714845 -12.519772 0.88228035 0.0
-1.8541987 -15.398348 0.912072 0.0
-12.242633 16.544104 1.2357112 0.0
2.627058 -3.2570028 0.72803003 0.0
1.5712111 -3.481483 0.75873607 0.0
16.121231 -4.3621912 1.1582247 0.0
-6.1742935 14.183214 0.8102628 0.0
-19.073729 -3.0904052 0.84006226 0.0
18.368088 14.1305 0.97852051 0.0
-4.8659315 11.906573 1.1915019 0.0
7.7706013 -10.815597 1.1284072 0.0
10.408519 -7.6495032 1.2551222 0.0
-20.075024 -0.55292612 1.0458921 0.0
1.6353114 -0.051949777 1.0334831 0.0
17.543249 12.090742 1.9026563 0.0
-10.014743 10.56861 0.89753807 0.0
-8.6503897 7.1150141 0.95876455 0.0
4.3096418 9.9532642 0.79523838 0.0
12.412691 16.257946 1.0102235 0.0
-16.094007 -8.9361687 0.99380553 0.0
18.163885 16.101532 0.84848082 0.0
0.75681734 15.124566 1.0506316 0.0
-4.9275208 -12.386126 0.96924019 0.0
5.9886408 -7.307744 0.68144453 0.0
-12.949829 -4.6879745 0.91912913 0.0
-15.053869 -6.7103791 1.6651697 0.0
-19.739925 3.945596 0.87875605 0.0
-4.3973799 10.935154 1.393248 0.0
12.60733 8.4727631 1.6811788 0.0
6.2923594 14.182251 1.0192342 0.0
-1.5027531 -1.3491706 0.96175134 0.0
17.45751 15.357665 0.83517343 0.0
18.457956 13.57472 1.1309352 0.0
-20.003567 -4.9804163 0.8755334 0.0
14.946174 3.5373521 1.1981575 0.0
-19.676754 14.971676 0.90538824 0.0
-13.779993 -4.783226 0.86627358 0.0
19.708317 -16.322409 0.77436924 0.0
13.394104 17.707741 0.85263169 0.0
-19.771534 -0.49244064 0.67409301 0.0
15.30459 15.682412 1.4465525 0.0
5.7951899 -17.509357 0.85227048 0.0
-10.873263 -1.1036172 0.9896338 0.0
-9.7719307 -2.9681921 1.2921305 0.0
1.7305288 -16.523895 0.92288625 0.0
11.305008 -1.1808648 1.2590418 0.0
5.6431389 1.2574188 0.91287321 0.0
19.246967 -1.3864703 2.4451795 0.0
7.494503 -13.906477 0.80060321 0.0
-4.0841236 -1.9525307 1.2820649 0.0
17.910444 -14.664285 0.86924386 0.0
21.043179 6.3991661 0.92772406 0.0
5.0237236 1.9012367 0.95513105 0.0
-1.4239208 16.975266 0.88109261 0.0
-16.811268 -7.892035 1.2077312 0.0
11.644403 -8.8228111 1.28987 0.0
-6.3489704 16.328579 0.87896216 0.0
19.977825 -1.1597397 1.7327464 0.0
21.026932 3.7151241 0.92771161 0.0
4.2574062 15.859032 0.93005174 0.0
-15.059174 -6.2375851 1.3665597 0.0
12.468646 -17.133991 0.90191549 0.0
14.651076 -17.663441 1.0579146 0.0
1.4687192 -6.9501057 0.53724933 0.0
-18.039112 -3.6234052 0.88021958 0.0
-2.429076 9.6905155 0.98910356 0.0
-2.4630654 11.964377 0.80777586 0.0
-4.9266047 -3.7601373 1.0358371 0.0
11.140721 6.6643291 1.3160021 0.0
-12.875242 -2.5101144 0.71899492 0.0
-14.71354 16.301086 1.3877954 0.0
-8.2300272 6.9226341 0.92025399 0.0
-6.4962773 2.3598309 1.7132986 0.0
12.39201 10.853798 1.1055489 0.0
5.3894386 -16.359034 0.79018569 0.0
5.0025606 12.417619 0.93239999 0.0
-13.463092 -10.345727 0.88572407 0.0
-11.90707 10.997826 0.71083844 0.0
14.949102 -14.145565 1.6462102 0.0
-17.165783 -7.0511022 1.251158 0.0
17.294147 8.5340958 0.96959758 0.0
3.5519826 7.5378118 1.061926 0.0
-2.0325832 17.213943 0.92792475 0.0
-8.8713274 -17.973635 0.84414464 0.0
-6.4320269 11.944812 1.2540076 0.0
-18.12575 8.5631075 1.0191579 0.0
-10.853775 15.251748 0.66832411 0.0
-2.2761984 -14.039627 0.86889404 0.0
17.129593 9.6995678 1.1070206 0.0
-5.4334254 8.571661 1.321787 0.0
-13.994963 -5.5279007 0.89776391 0.0
-1.5919048 8.0618677 1.1210953 0.0
-11.469456 11.737631 0.91831303 0.0
11.959242 -4.8803554 1.3712002 0.0
-4.3153543 -6.8339729 0.92306656 0.0
-20.991451 -13.864166 0.96816361 0.0
-10.588953 -6.7997961 0.86045599 0.0
-4.9693151 -9.9597616 0.99517566 0.0
1.7614915 0.72997618 0.94340968 0.0
3.8025081 -4.5347285 0.5946492 0.0
19.283644 -12.32014 0.94504678 0.0
-9.0896902 10.997975 0.88256311 0.0
-4.2364445 -7.7121224 0.89710224 0.0
20.899397 -2.0818782 0.93829823 0.0
-19.557234 0.55766594 0.81100142 0.0
-21.54954 5.309833 0.95663553 0.0
14.124622 2.9442699 1.2218242 0.0
-9.2618847 16.134144 0.91650903 0.0
-4.4022222 3.9885898 1.0697168 0.0
-5.1726213 12.893189 0.91671801 0.0
12.357718 -14.692047 0.98029864 0.0
12.901093 -7.1746774 1.2492156 0.0
9.0678482 17.282379 0.81054908 0.0
-19.770811 4.5412636 0.87878048 0.0
-15.659163 -2.0264916 1.3061149 0.0
-12.496563 -15.051303 0.98731446 0.0
11.063772 -15.574427 0.90359509 0.0
-7.5581436 11.021994 1.0227666 0.0
18.42165 -9.5546618 1.9334126 0.0
16.587227 2.53372 1.0980936 0.0
-18.48711 -6.6943703 1.0565503 0.0
2.1411757 11.850076 0.86486351 0.0
14.816808 -2.7318623 0.97089458 0.0
11.988358 -12.513883 1.2084501 0.0
1.4619584 0.58675683 0.935368 0.0
-6.3356571 5.836349 0.8578459 0.0
-7.9075937 -17.196381 0.82861239 0.0
-7.8577461 -5.6834526 0.89835298 0.0
-3.9463942 9.6051826 2.0347695 0.0
-9.0607986 -2.8777499 1.5113482 0.0
-14.322376 -9.636364 1.0807581 0.0
3.0710549 -5.1731482 0.60973257 0.0
20.525993 -2.6916137 1.284417 0.0
-7.5321207 14.655395 0.92432398 0.0
11.244722 -14.684524 0.89862156 0.0
7.9466352 -5.906497 1.2722801 0.0
-17.601574 5.6576247 1.4019884 0.0
2.3936577 12.003029 0.86887407 0.0
-3.5337884 8.2731953 2.0009809 0.0
-0.12367526 -15.349606 0.93465519 0.0
20.799929 -1.2613211 0.94521046 0.0
-5.206706 -15.02702 0.89238101 0.0
1.5449375 3.8898017 0.83252007 0.0
-0.86152446 -8.8291321 1.3173385 0.0
19.693573 -2.2917423 2.067349 0.0
-6.7286143 -8.9643335 0.78769088 0.0
-20.379007 3.0060074 0.93073452 0.0
-8.369235 -9.5019398 0.9178322 0.0
12.401648 -15.46226 0.91784441 0.0
6.7818151 -17.353704 0.87015915 0.0
-7.7523875 -12.806332 0.9182477 0.0
-20.212711 -4.4449892 1.0340006 0.0
-17.150936 -10.012815 0.811342 0.0
-13.950953 -7.6837087 1.8969152 0.0
-5.9789877 -0.89556444 1.6480545 0.0
7.6820574 -14.090528 0.80631918 0.0
18.06028 7.1103969 1.0383729 0.0
14.308271 -1.9721589 1.0082679 0.0
-20.342934 -5.7043777 0.76977861 0.0
12.440889 10.221909 1.1948575 0.0
-21.056803 10.104701 0.72894996 0.0
14.652178 9.6202259 1.0184679 0.0
19.348803 12.917461 0.94599187 0.0
13.968765 -17.954208 0.94860423 0.0
3.6861498 -1.6051328 1.4417591 0.0
5.3158617 -14.270225 0.79809678 0.0
-18.832542 -0.43070954 0.8101896 0.0
-16.925991 9.5658426 0.81597793 0.0
-18.150492 -15.682267 0.921597 0.0
19.373238 14.369743 0.84182012 0.0
8.9407024 6.2149863 1.9405397 0.0
13.290595 5.8729019 1.0204818 0.0
12.182037 -3.9807632 1.3975717 0.0
1.409487 -2.3186071 1.12755 0.0
4.1307402 -13.603005 0.80643153 0.0
-4.0077896 14.908864 0.78644931 0.0
-6.2957373 -1.2365707 1.6371713 0.0
-4.7852788 17.727341 0.90834612 0.0
14.258831 6.2883749 1.0651209 0.0
-9.8996134 10.47349 0.88990414 0.0
8.5171108 9.18367 0.66462952 0.0
8.5876484 -10.527088 1.2133631 0.0
-12.698205 15.569091 0.86632377 0.0
-16.571444 -6.5427027 1.5614563 0.0
8.6057482 -14.443961 0.8836695 0.0
-1.5450659 16.877941 0.88799822 0.0
1.5068362 11.293648 0.84624404 0.0
14.763473 7.7065325 1.135283 0.0
-4.7876678 -0.23311603 1.9760284 0.0
8.5206318 5.5525651 1.0047312 0.0
2.3253288 -6.4824371 0.60149932 0.0
-10.371089 9.9212866 0.80142462 0.0
-9.795392 12.411486 0.88221037 0.0
-21.038918 -3.7982743 0.93291557 0.0
-10.869497 -1.3715338 0.978526 0.0
-5.2561431 -12.583414 0.96278489 0.0
19.746702 -9.0051174 1.2854465 0.0
11.967732 -16.905184 0.86562085 0.0
0.33546114 16.449238 0.95536625 0.0
15.305297 2.7586422 1.2167578 0.0
-19.794407 -12.39447 1.331606 0.0
-12.287124 16.665983 0.93014205 0.0
-5.2377381 -1.6129004 1.7872304 0.0
-10.934128 -11.447569 1.0457383 0.0
13.884693 -0.53139323 0.87184066 0.0
21.042778 -7.8804064 0.79136825 0.0
15.123158 5.2289963 1.1019076 0.0
-20.462383 17.787292 0.92310232 0.0
1.2010441 5.7059669 0.92441416 0.0
-0.38826472 14.111942 1.0207983 0.0
-4.7132196 -1.7891493 1.539399 0.0
-12.175628 2.636838 0.73436797 0.0
-20.151886 14.419889 0.9754318 0.0
2.8771954 -6.0939913 0.62242371 0.0
-2.0114756 10.127899 0.89986509 0.0
-1.9771298 -9.12644 0.83749157 0.0
-16.918745 4.7557368 1.3135369 0.0
-7.1520271 0.82851309 0.98381114 0.0
-11.150271 -8.2302513 1.3353218 0.0
8.6976929 5.2255273 1.107057 0.0
0.94167024 -0.58948505 0.86121577 0.0
8.6080933 -13.756474 0.91759235 0.0
-13.055056 -9.6717529 1.4051232 0.0
-11.393597 -10.431813 1.5253088 0.0
15.788973 14.48074 1.6975607 0.0
-1.9125801 -6.2424603 1.0669309 0.0
-17.408201 -15.948154 1.0151277 0.0
2.4367261 -17.241915 0.89040148 0.0
-12.269294 -2.212209 0.91188091 0.0
-20.956734 12.899282 0.92335677 0.0
15.024339 -2.8025069 0.96617478 0.0
20.682751 -2.123739 1.1392727 0.0
0.085640691 2.0409119 0.96897948 0.0
10.287677 4.8212504 1.3706955 0.0
-20.405205 14.136699 0.9079932 0.0
-17.815491 5.3454595 1.2377371 0.0
13.773278 8.8913078 1.2799101 0.0
-9.932003 -15.199959 0.91460282 0.0
18.380352 -10.001574 1.9940922 0.0
12.670809 6.8946066 1.4098052 0.0
-6.473588 -0.081094138 1.2330225 0.0
-6.7325869 13.408048 0.94262707 0.0
-3.3710494 -8.7342253 0.85043597 0.0
-6.8909945 8.8201838 0.69565624 0.0
15.579486 12.199167 1.0512748 0.0
-12.319774 -10.695766 1.0742438 0.0
6.4351487 17.044859 0.76502436 0.0
14.334168 4.121295 1.1471366 0.0
-18.887806 -3.5981715 0.82723713 0.0
2.8781691 -10.375649 0.96310079 0.0
17.938183 -17.948826 0.90177447 0.0
13.190746 -16.902378 0.96293008 0.0
-8.7487888 -11.374809 1.0094874 0.0
-10.199184 0.41315612 1.070179 0.0
14.68684 3.2834406 1.1965048 0.0
-15.483316 15.829258 1.1120749 0.0
14.285795 -13.858784 1.3965244 0.0
16.918047 -12.539995 1.6720942 0.0
-11.078833 -9.9392214 1.9265506 0.0
19.222191 -6.8584795 1.8294919 0.0
5.7853651 12.144012 1.0882103 0.0
-1.0467547 7.2155309 1.0422245 0.0
-7.5889573 9.7960663 0.84144813 0.0
-3.130883 8.8285942 1.8151389 0.0
-13.000998 1.3751651 0.77271479 0.0
-13.085649 3.6260085 0.79111034 0.0
18.852606 -14.717875 0.71101499 0.0
-20.552952 8.0527868 0.93645775 0.0
-19.41535 8.0036983 0.98703456 0.0
12.489086 -11.530817 1.2580621 0.0
-6.8504539 -14.0175 0.90794277 0.0
11.720304 -3.7412944 1.3590707 0.0
-17.863918 0.25511271 0.78298485 0.0
4.9217873 6.511622 0.79031622 0.0
-14.551035 17.964561 0.88423848 0.0
-8.4036188 6.2913389 0.8638491 0.0
-6.1600728 -15.484329 0.85981286 0.0
-13.081017 -10.452587 0.96733654 0.0
-9.0123167 -6.9466734 0.80100423 0.0
6.3984194 -9.1505251 1.1003633 0.0
-20.904818 -8.9264584 0.87161446 0.0
-18.602615 11.950014 0.95927525 0.0
15.974671 1.7972907 1.0910503 0.0
-11.470092 2.1454899 0.89664614 0.0
0.89762229 -7.6764746 0.63440293 0.0
7.8703318 -16.368591 0.9498077 0.0
-6.0798507 -5.7205725 0.86858404 0.0
-18.315125 -2.6669116 0.89055204 0.0
-19.420116 -5.4561129 0.91829401 0.0
-21.644463 -7.8695555 1.006093 0.0
-6.6769028 -8.7160492 0.79547918 0.0
6.7191033 11.560675 1.3643832 0.0
-1.6064874 -13.100602 0.90230125 0.0
-8.2926044 -11.57832 0.90672994 0.0
4.1075058 -15.955007 0.84843636 0.0
9.2673922 15.096703 1.2966921 0.0
-12.974334 -12.736826 0.81848168 0.0
-18.646292 -12.287447 0.84463501 0.0
-21.385937 -6.9840965 0.87397295 0.0
8.3787174 -4.8955631 1.4878569 0.0
15.487231 7.8989286 1.0836383 0.0
-10.30484 -12.174214 0.83058596 0.0
7.2952271 16.714327 0.89479864 0.0
-13.199775 15.968236 0.94370919 0.0
1.8149819 4.6924839 0.8904801 0.0
7.481627 -8.9003372 1.699574 0.0
11.268765 5.6202087 1.3209513 0.0
-19.2628 5.5702233 1.0134169 0.0
-19.263697 -6.4000654 0.97949964 0.0
1.1064817 -9.7095919 1.0885577 0.0
8.5491676 0.20232977 1.3417978 0.0
-11.413729 -2.3375802 1.0218204 0.0
8.6057234 17.421211 0.78499866 0.0
-2.7266829 7.6953926 1.8206309 0.0
-15.817409 -4.5630932 0.87562239 0.0
-9.8865185 -11.506924 1.0543171 0.0
-3.5816932 -5.9879851 0.86969173 0.0
13.398802 -16.213902 0.95011961 0.0
-1.4526778 -7.6457882 1.3573657 0.0
-8.5484543 13.859652 0.82004428 0.0
5.7167878 -14.757506 0.79198098 0.0
-4.9520674 8.0684776 1.2985084 0.0
-6.8511076 14.187803 0.87646091 0.0
-8.330862 -13.233168 0.84496439 0.0
18.019402 -8.3301649 2.4005632 0.0
-21.094992 -12.249752 0.98229378 0.0
4.4179392 5.4126644 0.7560612 0.0
-8.5286331 11.648998 0.82468212 0.0
20.897728 0.9970935 1.0199779 0.0
0.61479199 11.18232 0.8576023 0.0
-16.318863 10.339287 0.83903617 0.0
10.515469 16.66214 0.90586227 0.0
-8.0473557 -8.5033588 0.88004148 0.0
-4.5221052 -16.527479 0.88359964 0.0
-12.266126 -10.258926 1.3677871 0.0
-6.6987739 11.539706 1.3234609 0.0
12.778353 2.9005663 0.985403 0.0
10.208675 11.568122 0.48503357 0.0
5.6881742 -8.9174347 0.77235508 0.0
-18.949665 10.359634 0.8518765 0.0
-15.445079 10.354172 1.298668 0.0
10.227936 2.4006157 1.0009222 0.0
18.919495 -14.271696 0.75113487 0.0
1.6087289 2.7051861 0.92466027 0.0
8.5312119 -6.1956186 1.4010828 0.0
-7.7217479 13.574424 0.92319345 0.0
9.3175707 -16.816219 0.81847984 0.0
15.018789 -12.086518 2.1224031 0.0
8.0899811 5.7913828 1.3632091 0.0
15.961754 14.313792 1.7373571 0.0
-17.277229 16.129509 0.88530731 0.0
-12.651413 6.8729029 1.314934 0.0
14.995462 -5.0379281 1.2462466 0.0
-5.2016459 -8.6630754 0.97319931 0.0
-18.62159 -2.3079777 0.84166247 0.0
15.765344 10.100555 1.0358313 0.0
-11.18887 3.9467864 0.87486196 0.0
-14.022854 -7.1148853 1.7617209 0.0
-4.7877226 10.760739 1.6447203 0.0
11.005058 -2.0915484 1.3340325 0.0
-0.066491947 13.611806 1.0038025 0.0
-0.3102954 -4.0620685 1.1687644 0.0
13.734314 13.902313 0.95589828 0.0
-7.3260589 -14.079628 0.94054878 0.0
3.8354011 -16.006166 0.87578177 0.0
-8.3007259 -8.5774612 0.85947675 0.0
19.621716 -6.0652599 1.3923347 0.0
-5.6751156 10.360147 1.7662261 0.0
2.451117 14.59837 0.9192332 0.0
-1.134569 0.46849176 0.8609392 0.0
-14.34374 -4.2341404 0.84418058 0.0
-0.86075795 -14.361717 0.88517916 0.0
-15.995679 -16.82259 0.70033026 0.0
21.304438 -12.821234 0.95078117 0.0
-21.007999 -8.1225643 1.0243938 0.0
-13.832981 0.57279503 0.95419002 0.0
15.496022 -15.13587 1.6483614 0.0
-16.661749 -5.1701851 0.93074381 0.0
-12.500813 4.5927615 0.88977861 0.0
15.130958 -4.2137909 1.1780545 0.0
9.8596697 -12.094957 1.1030591 0.0
-6.5987873 -15.931434 0.98529702 0.0
15.88798 5.4278131 1.2145892 0.0
5.4365039 4.3011312 0.85214353 0.0
-3.4836283 9.6258059 1.7063097 0.0
19.514706 -12.185065 0.84781057 0.0
-3.0994444 -0.2394639 1.231481 0.0
17.013285 -7.1223812 1.8104966 0.0
-12.150496 15.714417 0.81063825 0.0
0.3195332 14.574286 1.0432612 0.0
-17.237778 -16.975384 0.92115861 0.0
2.1928947 -2.3373165 0.86716217 0.0
12.167279 -10.520738 1.144918 0.0
-9.2198381 10.485563 0.90361404 0.0
-17.537872 -4.25103 0.94180334 0.0
19.405132 -17.133226 0.91720581 0.0
14.461046 0.6115818 1.037292 0.0
-13.27783 5.6547103 1.1914976 0.0
20.462574 -7.6300087 1.0229934 0.0
-11.94313 -8.0628376 1.4765314 0.0
-16.900322 -6.1365147 1.2600552 0.0
-0.15955484 -8.7326336 1.3110185 0.0
-4.3053789 6.2245159 0.88304174 0.0
-5.0716887 8.5288563 1.4082625 0.0
-11.834242 2.3542573 0.81621951 0.0
10.0566 0.65723604 1.1037213 0.0
-6.5799589 -9.8550377 0.87136632 0.0
16.868172 -15.262493 1.3560123 0.0
-1.5541353 6.0294466 0.8239851 0.0
-6.231679 -10.543674 0.90899014 0.0
-1.4867923 -12.88286 0.89390862 0.0
-20.843437 -8.7138262 0.9755978 0.0
2.4011886 13.787171 0.85302705 0.0
3.4883599 5.4447932 0.8297295 0.0
-13.093074 -0.72615653 0.91235518 0.0
9.1220646 -3.8304667 1.9081085 0.0
12.222192 9.9240866 0.99309409 0.0
-1.0957321 -16.530323 1.1062964 0.0
-21.238953 -3.1991773 0.96529323 0.0
-15.721247 -2.3770568 0.85777855 0.0
6.8224945 -14.784687 0.78090775 0.0
-6.2463326 4.5584993 0.93419182 0.0
11.054689 7.7351437 0.91217744 0.0
18.3757 12.875049 1.426282 0.0
-6.1455297 2.4332504 1.8759367 0.0
17.181108 9.3212194 1.0824065 0.0
-1.9878235 -5.6524539 1.1189719 0.0
9.8513641 -7.2636356 1.2955687 0.0
3.1867886 -6.0251203 0.61660373 0.0
20.570419 -11.749876 0.86641145 0.0
-16.157011 15.959804 1.0043265 0.0
-13.891689 -6.3485403 1.228784 0.0
-15.649816 -4.2278309 0.87931484 0.0
-11.360039 -12.377662 0.86093652 0.0
15.405465 16.564222 1.0969809 0.0
18.034216 -2.222393 2.293915 0.0
8.7299137 4.994277 1.0508173 0.0
-11.255631 -15.554338 1.028145 0.0
-20.015419 -11.550673 0.9136889 0.0
-9.2371464 12.805449 0.84050429 0.0
19.236639 -10.271911 1.4131153 0.0
-12.064648 12.201603 0.94243544 0.0
12.90958 -15.221831 0.98405945 0.0
-13.724966 10.832478 1.3844705 0.0
8.4012299 7.7928123 1.4355289 0.0
18.793095 7.7530613 1.4706508 0.0
9.2948093 8.5608883 0.61864305 0.0
13.437159 2.5898216 1.0843492 0.0
18.380558 1.786661 1.7921433 0.0
16.090958 3.0767665 1.0570042 0.0
-8.7804165 0.25675359 0.88379765 0.0
8.2129517 -8.5517521 1.6796298 0.0
-6.5829144 12.931155 1.0975275 0.0
-13.668645 -10.32695 0.91543031 0.0
8.7471647 1.3316579 1.1164757 0.0
-10.529208 -8.652792 1.2370209 0.0
13.360206 9.6541672 1.4242879 0.0
-15.498859 -6.2919207 1.434558 0.0
9.4490423 17.245441 0.8043465 0.0
-21.617748 -7.8130851 1.027889 0.0
-17.409462 -2.1672251 0.91641611 0.0
-13.642876 3.3383303 1.0763748 0.0
-12.121654 14.922388 0.75783479 0.0
-10.562895 -10.788809 1.4754705 0.0
-8.2669535 -2.0676882 1.3036287 0.0
8.5184555 5.5598016 1.0114061 0.0
-11.779159 -4.2988081 0.94124401 0.0
-8.8442364 16.896906 0.90303797 0.0
-1.161212 -17.807068 1.0096099 0.0
14.722534 -9.4620705 1.1920989 0.0
5.7724133 -7.8343582 0.64338982 0.0
20.819908 -4.2428336 1.0912132 0.0
-5.7274041 -15.113713 0.87391329 0.0
18.974979 -10.417923 1.662575 0.0
-4.333179 16.499859 0.91885304 0.0
15.042933 -8.2654896 1.1682731 0.0
-1.0459983 -15.022573 0.94383281 0.0
-3.2452488 -6.907794 0.85066485 0.0
-8.6299248 -12.918596 0.87588757 0.0
-20.546276 -9.0046015 0.92380834 0.0
-20.19989 -2.0939612 0.94220304 0.0
-17.106333 -2.2949185 0.88731569 0.0
-19.988091 12.92074 0.9852941 0.0
-8.8855915 -5.7858686 0.92645144 0.0
-3.0326076 9.0098877 1.6731378 0.0
-10.432571 2.6272612 0.89616013 0.0
-17.753408 11.636673 0.96627456 0.0
7.8718886 -1.9855334 1.6015371 0.0
-2.3661976 -15.24673 0.85242468 0.0
-14.283855 -9.4475069 1.1970998 0.0
-7.520968 8.2324104 0.80334485 0.0
0.97770387 -2.3243883 1.3182213 0.0
14.119585 -4.918344 1.2858362 0.0
10.209242 -4.7535996 1.5071223 0.0
-20.973736 -11.978362 0.93912506 0.0
19.392479 2.8214545 1.9750867 0.0
-21.506931 -7.7678862 1.0248187 0.0
-4.9390635 14.845201 0.8069129 0.0
12.451807 17.492266 0.96724731 0.0
1.4055202 7.27002 0.97654796 0.0
6.2713251 -9.2211647 1.087021 0.0
-8.6081448 -3.675741 1.1823907 0.0
4.9105039 -13.574717 0.83044541 0.0
18.997726 -6.0169601 1.4994628 0.0
14.972326 -1.5914402 0.84565532 0.0
-19.394775 -13.70961 0.89059615 0.0
12.920821 14.02134 1.087214 0.0
0.5553394 -10.204308 1.4222469 0.0
-0.064004898 -15.160669 0.93391156 0.0
4.3815088 -11.63423 1.2497818 0.0
-20.62392 11.30621 0.73103368 0.0
-2.6858358 6.012836 1.0632895 0.0
-10.654073 -8.9970016 1.4839878 0.0
-4.4902649 -0.21404389 1.8338283 0.0
13.587111 -4.0525742 1.2623175 0.0
-7.2637801 5.4867525 0.83138609 0.0
4.0968423 7.2184305 0.96848035 0.0
-10.406128 16.004639 0.83369768 0.0
17.54278 15.793141 0.83256835 0.0
-6.1833076 8.7957592 0.95072323 0.0
-7.1584969 -10.803846 0.90487421 0.0
-5.6693964 8.672678 1.108366 0.0
12.407058 -15.789688 0.90783453 0.0
-0.16323733 -8.8881187 1.38851 0.0
-7.4297037 7.796186 0.89004737 0.0
-21.024902 8.8521461 0.90805197 0.0
15.589664 -14.725006 1.7408421 0.0
-1.7512605 -3.5310287 1.0854914 0.0
9.9640903 -14.20039 0.9479335 0.0
-19.756218 -16.504459 0.8173995 0.0
-2.4116139 9.8128529 1.0485542 0.0
4.7722845 -12.337646 0.83331764 0.0
11.773319 -16.323343 0.85328192 0.0
-3.0033476 13.894575 0.98095447 0.0
-13.031589 14.558791 0.88357663 0.0
-14.624216 -6.8319516 1.6736435 0.0
14.391035 0.88954997 1.0330477 0.0
10.007658 -4.0431552 1.3405588 0.0
-20.507177 7.5297542 0.88003427 0.0
-15.937674 1.3738676 0.95042241 0.0
-12.882718 -14.888078 0.97749805 0.0
-11.857635 12.043386 0.95218891 0.0
3.00845 -8.6223936 0.62324244 0.0
0.54939651 -8.8665218 0.91411597 0.0
9.3012276 -13.275906 1.0156888 0.0
-15.637033 -1.8641124 1.2585677 0.0
-8.9225664 3.265533 0.88375175 0.0
-8.2885923 -2.3325634 1.4786615 0.0
-8.3464594 -4.7990084 1.0630146 0.0
14.32831 11.463851 1.0954006 0.0
-20.111542 5.1350703 0.85185343 0.0
-8.1744251 10.24115 0.82372689 0.0
17.302069 14.798897 1.0399817 0.0
-7.882534 -1.9580721 1.3200097 0.0
-14.615499 -4.9593258 0.90872133 0.0
15.468119 -3.8285456 1.1022573 0.0
8.4763126 13.127085 1.1597067 0.0
9.9255943 11.590172 0.53248006 0.0
-7.5756474 3.0086358 1.3145766 0.0
-6.2473702 -15.531947 0.92200339 0.0
8.4065285 15.102316 1.2452973 0.0
4.5463834 -13.756818 0.82749033 0.0
4.4523792 -3.7697699 0.71999621 0.0
11.242359 -6.5810533 1.339161 0.0
-1.2777998 16.604076 0.89522481 0.0
-19.749695 4.5147762 0.8782776 0.0
-13.079305 -0.75846702 0.90754354 0.0
-12.605656 -11.257133 0.85073167 0.0
-14.269293 6.5705266 1.6177833 0.0
12.253584 11.364855 1.0395309 0.0
-19.562696 -5.5824289 0.92013693 0.0
-20.48101 14.568211 0.93635863 0.0
19.396126 -9.3137493 1.5135906 0.0
4.984982 -6.8966875 0.66344106 0.0
-13.753606 11.016768 1.3270159 0.0
-10.393521 -9.8642693 1.7285664 0.0
-4.3709836 7.8453979 1.5788938 0.0
8.4586172 -8.3322582 1.6203605 0.0
-8.7050829 -1.2456815 1.0099628 0.0
20.759029 15.678175 0.74486315 0.0
18.977776 -6.9192462 1.907788 0.0
-6.4253941 -15.570895 0.91588324 0.0
14.089971 17.248917 0.97216761 0.0
-17.077976 -16.656788 0.98468733 0.0
14.795032 11.386033 1.0239282 0.0
-15.329029 -5.5035582 0.94644743 0.0
-19.079933 -9.9202528 0.79948795 0.0
10.671652 -5.9349251 1.464699 0.0
-20.91547 13.204181 0.93515706 0.0
-3.8785536 11.373188 1.0537754 0.0
13.284341 -12.140229 1.2323728 0.0
12.536071 -7.8117361 1.1681052 0.0
1.777433 -16.762789 0.94070363 0.0
-4.9629607 14.521086 0.80286062 0.0
12.204752 -4.2399483 1.4006271 0.0
2.105552 2.2640078 0.93587166 0.0
19.202763 -5.8783469 1.4165606 0.0
-12.278288 2.8447077 0.76330948 0.0
13.23457 6.9207997 1.2858135 0.0
-21.075439 4.5504575 0.95920217 0.0
-16.035656 -4.3528557 0.88945174 0.0
8.7291136 -14.990321 0.85810113 0.0
-12.488582 16.590008 0.84065562 0.0
6.6239009 -13.740425 0.88338935 0.0
-2.5374732 -11.091667 0.8675878 0.0
-12.512571 13.81782 0.88861132 0.0
3.101326 -8.5432158 0.62474334 0.0
17.277414 11.619837 1.4823658 0.0
21.171783 6.5376186 0.88112593 0.0
19.733702 -1.4509708 1.9884319 0.0
-6.2296515 13.492471 0.91477221 0.0
-2.1132064 -5.6078215 1.0582778 0.0
11.532275 16.921833 1.0179694 0.0
18.925545 -15.648923 0.67769849 0.0
-7.7407818 -17.142853 0.8343339 0.0
-1.5001853 -3.0821464 1.1050732 0.0
-18.574366 -13.512577 0.82558954 0.0
-11.458009 3.6523852 0.8706187 0.0
-16.062231 10.08787 0.90617257 0.0
19.419289 -3.1018009 2.2757332 0.0
8.3090973 -7.0494189 1.5595825 0.0
19.543934 -10.557596 1.2393521 0.0
10.742909 -1.3333514 1.3332655 0.0
-15.556184 -1.7405424 0.94098341 0.0
12.341372 -14.019434 0.97127235 0.0
-11.157103 -0.6552493 1.0621645 0.0
-16.818367 -16.701233 0.92124504 0.0
19.897125 -17.020538 0.85550356 0.0
9.3527327 15.056129 1.3014414 0.0
12.538948 -9.1402531 1.1555068 0.0
-7.7057905 14.996014 0.94129497 0.0
-10.831781 15.128688 0.6971671 0.0
-11.768815 -7.561717 1.3163341 0.0
11.821776 -14.669806 0.945719 0.0
-13.407382 16.602474 0.93784583 0.0
16.21067 -1.5016507 1.2353364 0.0
-17.470224 -11.27536 0.74730366 0.0
0.7271753 -9.2045412 0.96767533 0.0
-2.7736714 10.042946 1.0477097 0.0
-7.228404 -12.850742 0.98099005 0.0
10.140645 0.70266068 1.1008973 0.0
8.4628124 -2.131912 1.5285622 0.0
11.795728 11.349495 0.55123466 0.0
16.996881 -14.554571 1.4700382 0.0
19.433369 8.5961971 1.8657892 0.0
-5.8342876 17.38096 0.87519675 0.0
11.400942 10.753012 0.38433564 0.0
12.441468 6.0400014 1.3573909 0.0
15.601143 15.946495 1.2541877 0.0
7.4785085 15.285101 1.3343129 0.0
-2.811142 16.871206 0.96187758 0.0
-13.794377 -0.79182428 0.94135994 0.0
-14.168476 15.619217 0.95628047 0.0
-20.747826 -13.388598 1.017982 0.0
15.991198 -3.437351 1.0692434 0.0
17.650494 16.677372 0.87290335 0.0
16.966797 -16.073605 1.2615919 0.0
11.43963 -1.1382787 1.2296305 0.0
13.65327 -16.694048 1.02456 0.0
8.8023129 -2.1289332 1.4184241 0.0
-6.6608391 12.937398 1.0832906 0.0
11.311149 1.0641614 1.0697287 0.0
-7.2896242 1.9762732 1.1211432 0.0
-3.5384989 0.70544505 1.3097765 0.0
5.2850537 -16.532469 0.78213316 0.0
-1.6408808 -14.089025 0.90300798 0.0
9.7618322 9.7044744 0.58275056 0.0
20.816792 -16.515621 0.82917786 0.0
18.954203 1.3791571 2.1232049 0.0
9.9883909 -12.101892 1.0998435 0.0
20.95574 1.0952072 0.97183579 0.0
7.4637971 -16.670906 0.90209514 0.0
-14.946471 -7.4296255 1.9587193 0.0
17.117498 -11.563813 1.8767141 0.0
-15.080868 9.0322456 1.4920005 0.0
18.404337 -11.853958 1.2670048 0.0
-20.3703 -16.615353 0.8404839 0.0
17.981667 -0.81666481 2.3500741 0.0
12.374266 11.507675 1.1882932 0.0
-6.7811604 8.8584833 0.52677441 0.0
-18.817102 15.97084 0.94868469 0.0
-1.7619584 -8.1014471 1.1056244 0.0
9.4129 16.868473 0.85886359 0.0
7.0082121 14.702297 1.0977437 0.0
9.9093151 -4.1374264 1.7578132 0.0
13.732842 -13.41432 1.2501243 0.0
10.41028 5.8612456 1.4038359 0.0
15.665298 -9.2604055 1.5043659 0.0
17.369719 -8.4696083 2.5287459 0.0
8.1094847 -13.003913 0.9032945 0.0
-18.495993 0.12516424 0.89181721 0.0
-4.730711 16.290503 0.89016014 0.0
-11.216499 -11.822362 0.91880202 0.0
-1.5579195 5.9428577 0.83155948 0.0
4.2907047 11.770975 0.90080971 0.0
-3.3997405 -2.4249046 0.98046422 0.0
17.850552 12.938717 1.624637 0.0
-17.363537 3.2367744 0.89785838 0.0
-15.050158 1.8104171 1.0257642 0.0
-19.323906 -4.9181471 0.87288201 0.0
-9.880209 16.522133 0.83776134 0.0
-12.407269 1.7310015 0.76329243 0.0
15.339639 13.214337 1.0474941 0.0
16.820274 5.1283255 1.1114846 0.0
3.4684658 10.799325 0.86416072 0.0
-9.7480373 -10.80868 1.5078269 0.0
1.8172441 17.261951 0.79073966 0.0
-20.308292 16.720978 0.83657801 0.0
3.451807 14.588471 0.88503563 0.0
2.5249498 -9.1594496 0.66954827 0.0
-5.6252089 -2.8757834 1.5289663 0.0
-16.473782 14.774336 0.80026484 0.0
-14.404856 6.479063 1.6476982 0.0
-0.051857654 10.086853 0.84465975 0.0
11.098481 -14.168273 0.93920654 0.0
-20.321592 -16.590355 0.83703172 0.0
-17.161137 10.434849 0.81913042 0.0
11.192369 -16.028238 0.92459172 0.0
-19.489817 -9.2375193 0.84393555 0.0
-3.5710888 0.53799993 1.3376878 0.0
3.6713843 -12.218069 1.0334955 0.0
21.370834 1.6869504 0.86896378 0.0
-20.34395 0.52255982 1.019725 0.0
5.3621216 5.7404304 0.80544156 0.0
5.710741 -11.75832 0.95750237 0.0
10.885014 6.2835255 1.3140316 0.0
-3.4783692 16.700624 0.96149033 0.0
-9.4086609 15.603251 0.89606905 0.0
-6.4744878 -13.178423 0.99469727 0.0
0.42026737 -2.5789638 1.4813969 0.0
-12.76824 -5.4664621 0.92222953 0.0
-16.399784 -9.591835 0.86047542 0.0
-18.201283 -4.1064134 0.93271422 0.0
12.763668 12.731903 1.5883367 0.0
1.7750154 8.5535107 0.95336843 0.0
14.152674 -3.6306674 1.1212891 0.0
8.4543171 5.1537228 1.1056073 0.0
1.806643 -5.6587944 0.68613726 0.0
-12.637305 -9.7701435 1.4766479 0.0
-10.59762 -10.470494 1.8417485 0.0
-20.326979 6.4471183 0.8803786 0.0
17.608303 -1.4639776 2.190768 0.0
7.2969594 -15.221315 0.78300226 0.0
-2.9765425 -15.771557 0.85157716 0.0
20.874519 -0.34996206 1.0165178 0.0
-16.823185 5.5915909 1.6309786 0.0
12.613994 -13.655064 1.1749048 0.0
6.9231997 -2.5535998 1.345607 0.0
1.4231704 13.95352 0.97515601 0.0
-12.020073 3.0303607 0.78219467 0.0
1.2331784 9.2002811 0.81895626 0.0
-20.172628 -12.505303 1.0295142 0.0
11.270847 -8.3482552 1.2502632 0.0
-17.95561 -7.2840624 1.0789567 0.0
20.441002 2.1413374 1.3214476 0.0
1.7058952 -16.238869 0.89816773 0.0
-16.734854 -14.755098 0.98360324 0.0
8.6299801 7.104773 1.9024477 0.0
-11.498951 16.602524 0.74060619 0.0
-11.287973 -5.1521301 0.96048993 0.0
-15.418899 15.792695 1.1154042 0.0
1.6927449 -8.0032387 0.66618955 0.0
-4.1694136 6.6084604 1.1434282 0.0
19.037209 6.6490593 0.98407513 0.0
7.7855368 14.855618 1.3384244 0.0
-17.049286 13.624544 0.90377003 0.0
19.448795 8.7184925 1.8519284 0.0
11.983306 11.87077 0.83216596 0.0
-7.4218998 5.9557343 0.87586713 0.0
-0.15944317 4.0475574 0.85281014 0.0
-8.7484207 9.8590813 0.83185953 0.0
-10.989178 -12.592615 0.88356137 0.0
-10.606987 -12.617618 0.87958217 0.0
16.183025 -0.54461479 1.2534811 0.0
1.0809755 -14.835652 0.87533665 0.0
5.7981224 16.514114 0.847049 0.0
-10.251453 5.7612605 0.89777249 0.0
18.776022 7.781642 1.4742168 0.0
-11.288363 -5.1280684 0.96233135 0.0
-10.790354 -8.4537916 1.2478065 0.0
13.465721 15.389354 0.99431002 0.0
-10.851517 15.079767 0.87348545 0.0
4.0196447 -10.548625 1.0084882 0.0
17.198528 17.134182 0.87563711 0.0
-12.282898 -12.842492 0.75131482 0.0
11.241293 3.2293844 1.0549922 0.0
-9.926672 14.950199 1.0487367 0.0
-10.926571 4.7530966 0.9184435 0.0
-15.631542 -1.2980998 0.69097579 0.0
2.3312283 -17.403534 0.87143409 0.0
14.446926 9.7971592 1.0346832 0.0
-17.569647 -2.4460735 0.90556824 0.0
7.1654978 -14.124463 0.81262887 0.0
9.6045513 0.54041362 1.1832817 0.0
-12.574035 -6.1358104 1.0203638 0.0
-10.100101 -11.351188 1.1603043 0.0
9.5951834 -9.0506773 1.2876105 0.0
-10.328828 -8.4169579 1.0427597 0.0
-8.8814354 6.4907131 0.93936723 0.0
11.136208 9.047966 0.45931226 0.0
0.48577324 -8.7845249 0.91833389 0.0
-4.5991955 7.640419 1.3744349 0.0
14.494098 -17.605633 1.0313964 0.0
3.535027 -14.435289 0.91263342 0.0
